ply
format ascii 1.0
comment Created by CloudCompare v2.12 beta
comment Created 2026-01-12T12:26:42
obj_info Generated by CloudCompare!
element vertex 535
property double x
property double y
property double z
property float scalar_Scalar_field
property float scalar_Scalar_field_#2
property float scalar_Scalar_field_#3
property float scalar_Scalar_field_#4
end_header
781936.518997 9240023.670998 786.387024 19968.000000 17408.000000 18944.000000 9.000000 
781936.417999 9240023.469002 787.630981 55808.000000 57856.000000 58368.000000 9.000000 
781936.417999 9240023.637001 786.318970 28416.000000 30208.000000 27904.000000 9.000000 
781936.350998 9240023.434998 787.127014 55040.000000 55552.000000 57344.000000 9.000000 
781936.283997 9240023.334000 787.698975 12800.000000 13312.000000 14336.000000 9.000000 
781936.889008 9240023.905998 786.958984 16896.000000 17664.000000 18176.000000 9.000000 
781936.317001 9240023.401001 786.958984 14336.000000 15360.000000 16128.000000 9.000000 
781936.923004 9240023.940002 786.387024 18432.000000 18688.000000 19456.000000 9.000000 
781936.923004 9240023.940002 787.630981 17408.000000 18176.000000 18944.000000 9.000000 
781936.822006 9240023.805000 787.059998 17408.000000 17920.000000 17664.000000 9.000000 
781936.787994 9240023.838997 786.554993 17152.000000 17664.000000 17152.000000 9.000000 
781936.720993 9240023.737999 787.127014 15872.000000 16384.000000 16896.000000 9.000000 
781936.587006 9240023.670998 786.689026 17152.000000 17920.000000 17664.000000 9.000000 
781936.587006 9240023.704002 785.781006 17664.000000 18176.000000 18176.000000 9.000000 
781936.587006 9240023.704002 785.343994 16896.000000 17664.000000 17408.000000 9.000000 
781936.518997 9240023.602997 786.789978 19200.000000 16896.000000 17920.000000 9.000000 
781936.889008 9240023.940002 786.554993 18432.000000 18688.000000 19200.000000 9.000000 
781936.451996 9240023.536003 787.395996 52480.000000 53504.000000 53504.000000 9.000000 
781936.417999 9240023.704002 786.117981 32768.000000 36096.000000 34304.000000 9.000000 
781936.417999 9240023.469002 786.789978 54016.000000 54528.000000 55040.000000 9.000000 
781936.923004 9240023.940002 787.497009 18432.000000 18688.000000 19456.000000 9.000000 
781936.923004 9240023.940002 785.578979 18432.000000 18688.000000 19200.000000 9.000000 
781936.688004 9240023.805000 785.679993 16384.000000 16640.000000 16384.000000 9.000000 
781936.417999 9240023.501999 787.463013 52992.000000 53760.000000 54272.000000 9.000000 
781936.485992 9240023.570000 787.228027 32000.000000 32512.000000 30976.000000 9.000000 
781936.485992 9240023.670998 785.546021 17664.000000 17920.000000 16640.000000 9.000000 
781936.417999 9240023.602997 786.049988 32512.000000 33024.000000 33024.000000 9.000000 
781936.417999 9240023.501999 787.026001 53504.000000 54272.000000 55040.000000 9.000000 
781936.417999 9240023.469002 786.924988 55808.000000 57600.000000 58624.000000 9.000000 
781936.384995 9240023.570000 786.487976 57856.000000 58624.000000 56576.000000 9.000000 
781936.417999 9240023.469002 787.193970 55296.000000 56832.000000 57088.000000 9.000000 
781936.350998 9240023.401001 787.497009 58368.000000 56832.000000 59392.000000 9.000000 
781936.250000 9240023.301003 786.924988 14336.000000 14592.000000 15360.000000 9.000000 
781936.923004 9240023.940002 787.127014 17408.000000 18176.000000 18944.000000 9.000000 
781936.518997 9240023.670998 785.445007 17152.000000 18176.000000 18688.000000 9.000000 
781936.889008 9240023.905998 787.362000 16896.000000 17664.000000 17920.000000 9.000000 
781936.856003 9240023.873001 786.487976 18176.000000 18432.000000 18176.000000 9.000000 
781937.630005 9240024.949997 785.578979 10496.000000 10496.000000 12032.000000 9.000000 
781937.563004 9240024.815002 786.017029 14848.000000 14592.000000 15360.000000 9.000000 
781937.494995 9240024.780998 785.646973 16128.000000 16384.000000 16896.000000 9.000000 
781937.462006 9240024.647003 786.218994 32256.000000 33536.000000 33024.000000 9.000000 
781937.393997 9240024.612999 787.127014 17152.000000 16896.000000 17152.000000 9.000000 
781937.393997 9240024.647003 785.713989 16896.000000 17920.000000 17408.000000 9.000000 
781937.326996 9240024.545998 786.958984 15616.000000 16128.000000 16640.000000 9.000000 
781937.360992 9240024.612999 785.578979 17408.000000 16896.000000 17664.000000 9.000000 
781937.360992 9240024.545998 786.318970 18688.000000 18176.000000 19200.000000 9.000000 
781937.292999 9240024.445000 785.612976 16384.000000 16384.000000 16384.000000 9.000000 
781937.192001 9240024.344002 785.916016 15616.000000 15104.000000 15872.000000 9.000000 
781937.057999 9240024.141998 787.497009 16640.000000 17152.000000 17920.000000 9.000000 
781937.125000 9240024.209000 786.117981 17920.000000 18176.000000 17920.000000 9.000000 
781937.024002 9240024.108002 786.924988 17152.000000 18688.000000 19712.000000 9.000000 
781937.057999 9240024.141998 785.512024 16640.000000 15616.000000 15872.000000 9.000000 
781936.957001 9240024.041000 785.747986 18688.000000 19712.000000 19200.000000 9.000000 
781937.630005 9240024.916000 786.117981 32256.000000 32512.000000 34560.000000 9.000000 
781937.563004 9240024.916000 785.512024 15104.000000 15104.000000 16640.000000 9.000000 
781937.529007 9240024.848999 785.242981 15104.000000 15872.000000 15616.000000 9.000000 
781937.462006 9240024.680000 787.362000 17152.000000 17664.000000 17152.000000 9.000000 
781937.462006 9240024.748001 785.948975 15616.000000 15872.000000 16384.000000 9.000000 
781937.057999 9240024.141998 786.387024 17664.000000 17152.000000 18176.000000 9.000000 
781937.024002 9240024.074997 787.395996 17664.000000 19968.000000 19968.000000 9.000000 
781937.057999 9240024.141998 786.017029 16640.000000 15616.000000 15872.000000 9.000000 
781937.259995 9240024.478996 785.309998 18176.000000 17920.000000 18432.000000 9.000000 
781937.225998 9240024.344002 786.151001 14080.000000 13312.000000 15104.000000 9.000000 
781937.630005 9240024.949997 785.411011 15104.000000 15616.000000 14848.000000 9.000000 
781937.158997 9240024.344002 785.546021 17664.000000 17408.000000 18432.000000 9.000000 
781937.158997 9240024.242996 786.487976 14592.000000 12800.000000 13568.000000 9.000000 
781937.057999 9240024.141998 787.328979 16896.000000 17152.000000 16640.000000 9.000000 
781937.091003 9240024.209000 785.916016 16128.000000 16128.000000 16384.000000 9.000000 
781937.057999 9240024.176003 785.276978 18688.000000 17408.000000 18176.000000 9.000000 
781936.990005 9240024.041000 787.260986 18688.000000 19712.000000 19200.000000 9.000000 
781937.462006 9240024.713997 785.578979 17664.000000 18432.000000 19456.000000 9.000000 
781937.393997 9240024.647003 787.026001 16640.000000 17920.000000 16896.000000 9.000000 
781936.990005 9240024.041000 786.723022 19712.000000 21248.000000 19968.000000 9.000000 
781937.292999 9240024.478996 785.982971 17920.000000 18176.000000 18176.000000 9.000000 
781937.259995 9240024.411003 786.353027 15872.000000 16896.000000 16640.000000 9.000000 
781937.595993 9240024.916000 785.982971 14336.000000 14848.000000 15872.000000 9.000000 
781937.225998 9240024.445000 785.411011 16896.000000 17152.000000 18432.000000 9.000000 
781937.225998 9240024.445000 787.463013 17152.000000 17152.000000 17920.000000 9.000000 
781937.393997 9240024.647003 787.564026 17664.000000 17408.000000 18688.000000 9.000000 
781937.462006 9240024.713997 785.815002 17664.000000 18432.000000 19456.000000 9.000000 
781937.360992 9240024.580002 787.228027 18176.000000 18432.000000 19200.000000 9.000000 
781936.990005 9240024.041000 785.916016 18944.000000 19456.000000 18432.000000 9.000000 
781937.326996 9240024.545998 785.747986 17664.000000 17408.000000 18176.000000 9.000000 
781937.664001 9240025.016998 787.497009 15360.000000 16128.000000 17408.000000 9.000000 
781936.957001 9240024.007004 786.184998 19456.000000 19968.000000 19456.000000 9.000000 
781937.630005 9240024.983002 785.882019 16384.000000 16896.000000 16640.000000 9.000000 
781937.057999 9240024.176003 785.411011 16896.000000 17408.000000 17152.000000 9.000000 
781937.494995 9240024.815002 785.411011 16128.000000 16128.000000 16384.000000 9.000000 
781937.427994 9240024.647003 787.260986 20736.000000 22272.000000 22528.000000 9.000000 
781936.957001 9240024.007004 786.958984 19456.000000 19712.000000 19456.000000 9.000000 
781937.158997 9240024.377998 785.276978 16640.000000 16128.000000 16640.000000 9.000000 
781937.462006 9240024.647003 786.757019 22016.000000 24320.000000 23808.000000 9.000000 
781937.462006 9240024.612999 786.117981 28416.000000 30720.000000 31488.000000 9.000000 
781937.292999 9240024.478996 786.487976 19200.000000 18432.000000 18432.000000 9.000000 
781936.990005 9240024.041000 785.242981 19200.000000 21504.000000 18688.000000 9.000000 
781937.292999 9240024.445000 785.713989 15360.000000 15104.000000 16384.000000 9.000000 
781937.057999 9240024.141998 786.689026 16640.000000 17152.000000 17920.000000 9.000000 
781937.125000 9240024.277000 785.343994 17920.000000 16640.000000 17152.000000 9.000000 
781937.494995 9240024.713997 786.049988 29440.000000 29440.000000 28672.000000 9.000000 
781937.393997 9240024.713997 785.309998 19456.000000 19200.000000 18944.000000 9.000000 
781937.393997 9240024.580002 786.588989 23552.000000 25600.000000 25856.000000 9.000000 
781937.158997 9240024.277000 786.049988 15616.000000 14592.000000 16128.000000 9.000000 
781937.630005 9240024.983002 785.276978 16128.000000 16640.000000 16640.000000 9.000000 
781937.393997 9240024.580002 786.857971 17408.000000 17408.000000 19200.000000 9.000000 
781937.360992 9240024.612999 787.429993 17408.000000 17152.000000 18176.000000 9.000000 
781937.259995 9240024.512001 787.564026 17152.000000 17152.000000 17408.000000 9.000000 
781937.292999 9240024.512001 787.093018 17408.000000 17920.000000 17920.000000 9.000000 
781937.393997 9240024.647003 785.445007 17664.000000 17664.000000 18432.000000 9.000000 
781937.393997 9240024.580002 786.419983 18176.000000 18432.000000 19712.000000 9.000000 
781937.427994 9240024.647003 785.982971 17920.000000 19200.000000 19712.000000 9.000000 
781937.259995 9240024.478996 786.992004 17920.000000 18176.000000 18432.000000 9.000000 
781937.393997 9240024.545998 786.151001 25600.000000 25856.000000 26880.000000 9.000000 
781936.990005 9240024.108002 785.343994 16896.000000 17664.000000 18944.000000 9.000000 
781937.326996 9240024.545998 787.362000 15616.000000 16128.000000 16640.000000 9.000000 
781937.057999 9240024.108002 786.117981 17664.000000 17920.000000 18176.000000 9.000000 
781936.182999 9240023.905998 789.380981 59648.000000 60160.000000 59904.000000 9.000000 
781936.014008 9240023.772003 789.245972 60672.000000 61696.000000 64000.000000 9.000000 
781936.048004 9240023.805000 789.112000 61440.000000 61440.000000 63744.000000 9.000000 
781935.880005 9240023.602997 789.280029 11520.000000 12032.000000 13824.000000 9.000000 
781935.880005 9240023.602997 789.112000 11520.000000 12032.000000 13824.000000 9.000000 
781935.912994 9240023.637001 788.943970 14848.000000 19200.000000 16896.000000 9.000000 
781936.115005 9240023.838997 789.280029 59904.000000 61440.000000 61184.000000 9.000000 
781936.014008 9240023.772003 788.843018 53760.000000 54784.000000 54272.000000 9.000000 
781935.947006 9240023.704002 789.112000 20224.000000 22784.000000 18176.000000 9.000000 
781935.912994 9240023.637001 788.843018 25856.000000 25088.000000 26624.000000 9.000000 
781936.417999 9240024.209000 789.078003 59904.000000 60928.000000 60672.000000 9.000000 
781936.384995 9240024.074997 789.245972 32000.000000 30720.000000 30464.000000 9.000000 
781936.250000 9240024.007004 789.346985 60672.000000 59648.000000 60160.000000 9.000000 
781938.000000 9240025.487999 785.781006 13568.000000 15104.000000 14336.000000 9.000000 
781937.932999 9240025.353996 786.049988 35328.000000 35840.000000 35328.000000 9.000000 
781937.932999 9240025.286003 786.789978 29184.000000 29184.000000 29696.000000 9.000000 
781937.932999 9240025.353996 785.309998 29440.000000 30464.000000 31488.000000 9.000000 
781937.865997 9240025.286003 785.478027 25344.000000 26880.000000 27648.000000 9.000000 
781937.798004 9240025.184998 786.958984 12544.000000 13056.000000 13312.000000 9.000000 
781937.798004 9240025.152000 786.184998 29440.000000 31232.000000 31744.000000 9.000000 
781937.798004 9240025.152000 785.478027 27904.000000 28672.000000 29952.000000 9.000000 
781937.764999 9240025.084000 786.318970 15360.000000 15360.000000 16128.000000 9.000000 
781937.731003 9240025.084000 785.948975 13568.000000 14336.000000 15104.000000 9.000000 
781938.033997 9240025.420998 786.117981 29184.000000 30720.000000 31488.000000 9.000000 
781937.832001 9240025.184998 787.161011 28416.000000 30208.000000 30720.000000 9.000000 
781937.865997 9240025.286003 785.815002 12800.000000 12800.000000 13056.000000 9.000000 
781937.731003 9240025.084000 787.429993 23552.000000 24832.000000 25600.000000 9.000000 
781937.798004 9240025.152000 786.049988 21248.000000 22784.000000 21504.000000 9.000000 
781937.731003 9240025.051003 786.151001 30208.000000 31232.000000 32256.000000 9.000000 
781937.899002 9240025.252998 786.690002 27904.000000 28416.000000 29952.000000 9.000000 
781937.731003 9240025.084000 786.992004 9216.000000 11008.000000 9984.000000 9.000000 
781938.000000 9240025.420998 785.309998 25344.000000 25600.000000 27136.000000 9.000000 
781937.966995 9240025.387001 785.747986 15104.000000 16128.000000 14592.000000 9.000000 
781937.764999 9240025.117996 787.093018 12800.000000 15104.000000 12800.000000 9.000000 
781937.832001 9240025.219002 785.646973 12032.000000 12032.000000 13056.000000 9.000000 
781937.764999 9240025.117996 785.646973 10496.000000 12544.000000 10752.000000 9.000000 
781937.697006 9240025.051003 785.377014 13312.000000 13824.000000 14592.000000 9.000000 
781937.865997 9240025.320000 785.948975 12544.000000 12544.000000 13568.000000 9.000000 
781938.033997 9240025.455002 787.497009 28672.000000 29184.000000 30464.000000 9.000000 
781937.764999 9240025.117996 786.419983 11776.000000 13568.000000 12544.000000 9.000000 
781937.966995 9240025.455002 785.882019 13056.000000 13312.000000 13312.000000 9.000000 
781938.000000 9240025.455002 785.546021 28672.000000 29440.000000 29696.000000 9.000000 
781937.865997 9240025.252998 786.049988 21760.000000 20992.000000 22528.000000 9.000000 
781938.438004 9240025.959000 786.520996 27904.000000 26880.000000 26880.000000 9.000000 
781938.337006 9240025.926003 787.328979 27136.000000 28416.000000 27392.000000 9.000000 
781938.369995 9240025.959999 785.982971 28672.000000 29952.000000 30208.000000 9.000000 
781938.404007 9240025.891998 785.343994 24576.000000 24576.000000 26112.000000 9.000000 
781938.302994 9240025.859001 786.151001 27648.000000 30464.000000 29696.000000 9.000000 
781938.201996 9240025.758003 787.228027 23808.000000 24576.000000 25344.000000 9.000000 
781938.268997 9240025.824997 785.781006 18944.000000 17920.000000 20224.000000 9.000000 
781938.235992 9240025.758003 786.520996 23808.000000 24576.000000 25344.000000 9.000000 
781938.167999 9240025.723999 787.362000 14592.000000 13824.000000 15360.000000 9.000000 
781938.201996 9240025.791000 785.848022 15104.000000 16640.000000 18176.000000 9.000000 
781938.201996 9240025.723999 786.789978 30208.000000 32512.000000 32512.000000 9.000000 
781938.268997 9240025.758003 785.309998 27648.000000 30208.000000 30464.000000 9.000000 
781938.134995 9240025.656998 787.429993 18176.000000 19712.000000 18688.000000 9.000000 
781938.201996 9240025.723999 786.017029 29696.000000 30464.000000 30976.000000 9.000000 
781938.134995 9240025.656998 786.924988 24576.000000 25856.000000 25600.000000 9.000000 
781938.167999 9240025.723999 785.546021 19968.000000 19712.000000 20992.000000 9.000000 
781938.134995 9240025.656998 785.948975 22528.000000 24320.000000 24576.000000 9.000000 
781938.067001 9240025.556000 786.588989 12288.000000 12032.000000 13312.000000 9.000000 
781938.067993 9240025.556000 785.815002 13056.000000 15360.000000 16384.000000 9.000000 
781938.369995 9240025.926003 786.318970 29440.000000 26880.000000 28928.000000 9.000000 
781938.235992 9240025.824997 787.362000 12800.000000 13312.000000 14848.000000 9.000000 
781938.302994 9240025.891998 785.982971 24320.000000 25088.000000 27648.000000 9.000000 
781938.134995 9240025.656998 787.260986 24576.000000 25856.000000 25600.000000 9.000000 
781938.134995 9240025.656998 786.588989 18176.000000 19712.000000 18688.000000 9.000000 
781938.100998 9240025.588997 786.757019 27904.000000 28160.000000 29952.000000 9.000000 
781938.134995 9240025.623001 785.377014 27392.000000 29952.000000 30208.000000 9.000000 
781938.067993 9240025.556000 785.242981 23040.000000 25600.000000 27136.000000 9.000000 
781938.438004 9240026.027000 786.453979 27648.000000 28160.000000 28416.000000 9.000000 
781938.302994 9240025.859001 787.059998 28672.000000 30464.000000 30208.000000 9.000000 
781938.067993 9240025.588997 785.646973 14336.000000 13824.000000 16384.000000 9.000000 
781938.302994 9240025.859001 786.487976 26368.000000 28672.000000 30208.000000 9.000000 
781938.201996 9240025.758003 786.353027 30208.000000 32000.000000 31488.000000 9.000000 
781938.100998 9240025.588997 786.049988 28160.000000 29696.000000 30976.000000 9.000000 
781938.000000 9240025.522003 786.656006 13568.000000 15104.000000 14080.000000 9.000000 
781938.033997 9240025.556000 786.890991 15360.000000 17152.000000 17408.000000 9.000000 
781938.134995 9240025.588997 786.151001 29440.000000 32768.000000 33024.000000 9.000000 
781938.268997 9240025.758003 786.218994 27392.000000 29952.000000 30464.000000 9.000000 
781938.235992 9240025.758003 787.026001 30208.000000 32000.000000 31488.000000 9.000000 
781938.134995 9240025.623001 785.478027 26112.000000 29440.000000 28928.000000 9.000000 
781938.201996 9240025.758003 787.564026 21248.000000 23040.000000 22528.000000 9.000000 
781938.268997 9240025.859001 785.646973 31488.000000 31488.000000 30464.000000 9.000000 
781938.302994 9240025.824997 785.411011 26112.000000 28160.000000 28416.000000 9.000000 
781938.201996 9240025.758003 786.622009 30208.000000 32512.000000 32512.000000 9.000000 
781938.438004 9240025.992996 785.815002 28416.000000 28672.000000 30720.000000 9.000000 
781938.235992 9240025.758003 786.890991 27648.000000 29184.000000 30464.000000 9.000000 
781938.201996 9240025.723999 787.127014 25344.000000 25088.000000 26112.000000 9.000000 
781938.100998 9240025.623001 787.531006 27904.000000 27904.000000 29440.000000 9.000000 
781938.235992 9240025.791000 785.982971 24576.000000 25856.000000 26624.000000 9.000000 
781938.167999 9240025.690002 786.453979 31488.000000 33024.000000 32512.000000 9.000000 
781938.201996 9240025.690002 786.117981 28160.000000 28416.000000 29696.000000 9.000000 
781938.134995 9240025.623001 786.690002 22528.000000 24320.000000 24576.000000 9.000000 
781942.376007 9240028.248001 789.245972 46336.000000 44800.000000 49920.000000 9.000000 
781942.442993 9240028.281998 789.044983 40960.000000 41472.000000 46592.000000 9.000000 
781942.376007 9240028.181000 789.044983 51968.000000 54272.000000 55552.000000 9.000000 
781936.216003 9240023.940002 788.572998 60160.000000 59136.000000 58880.000000 9.000000 
781942.207001 9240028.046005 789.346985 46848.000000 45568.000000 46848.000000 9.000000 
781942.442993 9240028.316010 789.314026 41984.000000 41984.000000 45056.000000 9.000000 
781942.207001 9240028.046005 789.245972 55808.000000 55040.000000 56832.000000 9.000000 
781942.341995 9240028.181000 789.314026 60672.000000 59648.000000 59136.000000 9.000000 
781935.912994 9240023.637001 789.716980 14848.000000 19200.000000 16896.000000 9.000000 
781936.149002 9240023.873001 790.187988 57600.000000 57600.000000 58112.000000 9.000000 
781936.014008 9240023.805000 790.020020 49408.000000 51712.000000 49408.000000 9.000000 
781936.048004 9240023.772003 790.187988 58112.000000 59136.000000 59904.000000 9.000000 
781935.981003 9240023.737999 789.447998 34816.000000 35328.000000 36864.000000 9.000000 
781936.048004 9240023.805000 789.549011 55296.000000 57088.000000 58624.000000 9.000000 
781935.947006 9240023.704002 790.054016 16384.000000 15872.000000 20480.000000 9.000000 
781935.981003 9240023.737999 789.784973 36864.000000 37888.000000 39680.000000 9.000000 
781935.912994 9240023.670998 789.583008 20224.000000 19456.000000 23040.000000 9.000000 
781935.845993 9240023.637001 789.481995 14592.000000 14848.000000 13568.000000 9.000000 
781935.845993 9240023.570000 789.750977 14592.000000 15104.000000 16128.000000 9.000000 
781936.417999 9240024.242996 789.716980 59392.000000 60672.000000 61696.000000 9.000000 
781936.350998 9240024.141998 789.716980 60160.000000 61184.000000 61184.000000 9.000000 
781936.250000 9240023.973999 790.187988 57088.000000 57856.000000 56832.000000 9.000000 
781936.250000 9240024.007004 789.481995 58368.000000 59392.000000 57600.000000 9.000000 
781936.552994 9240024.377998 790.155029 50944.000000 50688.000000 49920.000000 9.000000 
781936.417999 9240024.209000 789.851990 58368.000000 58880.000000 60160.000000 9.000000 
781936.283997 9240024.041000 790.155029 59904.000000 61952.000000 61184.000000 9.000000 
781936.451996 9240024.277000 790.155029 60672.000000 61184.000000 59904.000000 9.000000 
781936.317001 9240024.074997 789.414978 59648.000000 61952.000000 60160.000000 9.000000 
781938.268997 9240024.545998 789.784973 24576.000000 25088.000000 25856.000000 9.000000 
781938.268997 9240024.344002 790.020020 25088.000000 25344.000000 25856.000000 9.000000 
781938.167999 9240024.277000 789.784973 24064.000000 24320.000000 26368.000000 9.000000 
781938.470993 9240024.780998 789.851990 21760.000000 22528.000000 24832.000000 9.000000 
781938.067001 9240024.176003 789.953003 23040.000000 25088.000000 26112.000000 9.000000 
781938.167999 9240024.309998 789.885986 24320.000000 25344.000000 26880.000000 9.000000 
781938.639999 9240025.016998 789.885986 22784.000000 22016.000000 25088.000000 9.000000 
781938.404007 9240024.141998 790.054016 25856.000000 25600.000000 28416.000000 9.000000 
781938.033997 9240024.141998 790.155029 21760.000000 22784.000000 25088.000000 9.000000 
781938.369995 9240024.612999 789.750977 22528.000000 23296.000000 24064.000000 9.000000 
781938.134995 9240024.277000 789.616028 24320.000000 25344.000000 26112.000000 9.000000 
781938.539001 9240024.882004 789.784973 23296.000000 23552.000000 25344.000000 9.000000 
781938.100998 9240024.209000 790.120972 22528.000000 25088.000000 26368.000000 9.000000 
781937.225998 9240022.695000 790.625977 40192.000000 39168.000000 41216.000000 9.000000 
781936.720993 9240024.579002 790.155029 51968.000000 52992.000000 52480.000000 9.000000 
781936.889008 9240024.780998 790.155029 45312.000000 44800.000000 43264.000000 9.000000 
781936.822006 9240024.680000 790.155029 22784.000000 21248.000000 20224.000000 9.000000 
781938.572006 9240024.916000 789.919006 24064.000000 24832.000000 26368.000000 9.000000 
781938.470993 9240024.780998 789.953003 22784.000000 23296.000000 24576.000000 9.000000 
781938.639999 9240025.016998 789.986023 22784.000000 24064.000000 26112.000000 9.000000 
781938.369995 9240024.242996 790.054016 24832.000000 24320.000000 25856.000000 9.000000 
781942.880997 9240028.888000 788.843018 33536.000000 34560.000000 30976.000000 9.000000 
781942.779999 9240028.685989 788.775024 42496.000000 43776.000000 43008.000000 9.000000 
781942.544006 9240028.417007 788.708008 15104.000000 13568.000000 17152.000000 9.000000 
781942.914001 9240028.853989 788.640991 33280.000000 30208.000000 27904.000000 9.000000 
781942.880997 9240028.955002 789.179016 44800.000000 47872.000000 44288.000000 9.000000 
781942.813004 9240028.787003 788.909973 41728.000000 43520.000000 43520.000000 9.000000 
781942.779999 9240028.685989 788.606995 39168.000000 38656.000000 37120.000000 9.000000 
781942.712006 9240028.617996 788.909973 57600.000000 57600.000000 55296.000000 9.000000 
781943.014999 9240029.056000 788.809021 30720.000000 30208.000000 32768.000000 9.000000 
781942.645004 9240028.516998 788.742004 58624.000000 57856.000000 61184.000000 9.000000 
781942.610992 9240028.584991 789.245972 48896.000000 47872.000000 47872.000000 9.000000 
781942.645004 9240028.516998 789.010986 57600.000000 59904.000000 59136.000000 9.000000 
781942.679001 9240028.651993 789.245972 25088.000000 22016.000000 17664.000000 9.000000 
781942.779999 9240028.719009 789.078003 37376.000000 38912.000000 36608.000000 9.000000 
781942.947998 9240028.955002 788.640991 45568.000000 45568.000000 48128.000000 9.000000 
781943.182999 9240029.292007 789.044983 48128.000000 47616.000000 48384.000000 9.000000 
781943.014999 9240029.123001 789.179016 33792.000000 33536.000000 34304.000000 9.000000 
781943.520004 9240029.796005 789.078003 41984.000000 41728.000000 42496.000000 9.000000 
781943.352005 9240029.526993 788.976990 38656.000000 41472.000000 40192.000000 9.000000 
781943.317993 9240029.426010 788.809021 50176.000000 49920.000000 50688.000000 9.000000 
781943.216995 9240029.358994 788.943970 41472.000000 42752.000000 44032.000000 9.000000 
781943.216995 9240029.393005 789.179016 52736.000000 52224.000000 54272.000000 9.000000 
781943.554001 9240029.763000 788.843018 49920.000000 49408.000000 51200.000000 9.000000 
781943.182999 9240029.257996 788.708008 39936.000000 38912.000000 40448.000000 9.000000 
781943.082993 9240029.123001 788.742004 41984.000000 40192.000000 41984.000000 9.000000 
781943.251007 9240029.393005 788.606995 44800.000000 46080.000000 48384.000000 9.000000 
781943.149994 9240029.223999 788.909973 42240.000000 43008.000000 41728.000000 9.000000 
781943.587006 9240029.897003 789.179016 58368.000000 61696.000000 62208.000000 9.000000 
781943.048996 9240029.089996 788.909973 41728.000000 41984.000000 42752.000000 9.000000 
781943.520004 9240029.763000 788.708008 49664.000000 48640.000000 49152.000000 9.000000 
781943.283997 9240029.426010 789.010986 38656.000000 40448.000000 40704.000000 9.000000 
781943.520004 9240034.070999 786.723022 16128.000000 15104.000000 16128.000000 9.000000 
781943.485992 9240034.037003 786.487976 13312.000000 13056.000000 13056.000000 9.000000 
781943.587006 9240034.104996 785.916016 61184.000000 61440.000000 62464.000000 9.000000 
781943.587006 9240034.138000 786.791016 61184.000000 61440.000000 62464.000000 9.000000 
781943.520004 9240034.070999 786.622009 16128.000000 14592.000000 15360.000000 9.000000 
781943.554001 9240034.003998 787.026001 14336.000000 13568.000000 15104.000000 9.000000 
781943.587006 9240034.070999 786.252014 40704.000000 40192.000000 41472.000000 9.000000 
781943.352005 9240029.595001 789.213013 41472.000000 39680.000000 41216.000000 9.000000 
781942.981995 9240029.056000 789.346985 57344.000000 57600.000000 59648.000000 9.000000 
781942.880997 9240028.888000 789.380981 47872.000000 48896.000000 49920.000000 9.000000 
781942.779999 9240028.787003 789.346985 53504.000000 53760.000000 54272.000000 9.000000 
781943.453003 9240029.763000 789.245972 60672.000000 61952.000000 60416.000000 9.000000 
781943.520004 9240029.796005 789.346985 53504.000000 53504.000000 53248.000000 9.000000 
781943.149994 9240029.324997 789.314026 56576.000000 58112.000000 58112.000000 9.000000 
781943.048996 9240029.191010 789.346985 58880.000000 58368.000000 58368.000000 9.000000 
781943.485992 9240029.695007 789.380981 42496.000000 42240.000000 44288.000000 9.000000 
781942.645004 9240028.584991 789.380981 58624.000000 59136.000000 59904.000000 9.000000 
781943.384995 9240029.662003 789.280029 49664.000000 48640.000000 51968.000000 9.000000 
781942.981995 9240029.056000 789.245972 55808.000000 55296.000000 56320.000000 9.000000 
781943.352005 9240033.195999 787.732971 26880.000000 27136.000000 26112.000000 9.000000 
781943.822998 9240030.167007 789.044983 39680.000000 40192.000000 42240.000000 9.000000 
781943.621002 9240029.830002 788.909973 23552.000000 24320.000000 26624.000000 9.000000 
781943.789001 9240030.132996 788.843018 42752.000000 43776.000000 46336.000000 9.000000 
781943.654999 9240029.998001 789.145996 47616.000000 47616.000000 49408.000000 9.000000 
781943.688004 9240029.964996 788.909973 45824.000000 45056.000000 46592.000000 9.000000 
781943.688004 9240029.964996 789.010986 45824.000000 45056.000000 46592.000000 9.000000 
781943.755997 9240030.066010 788.775024 48640.000000 47360.000000 51200.000000 9.000000 
781943.621002 9240029.863998 788.674988 44800.000000 46336.000000 47104.000000 9.000000 
781943.654999 9240029.897003 789.010986 24320.000000 23552.000000 24576.000000 9.000000 
781944.697998 9240031.412003 788.909973 42496.000000 39424.000000 46080.000000 9.000000 
781944.664001 9240031.345001 788.775024 41472.000000 41472.000000 45056.000000 9.000000 
781944.630997 9240031.310989 789.010986 44288.000000 43520.000000 47360.000000 9.000000 
781944.429001 9240031.074997 789.112000 56832.000000 58880.000000 61440.000000 9.000000 
781944.462006 9240031.007996 788.708008 37888.000000 36864.000000 38656.000000 9.000000 
781944.429001 9240031.042007 788.976990 42752.000000 45056.000000 44800.000000 9.000000 
781944.328003 9240030.906998 789.078003 50176.000000 50688.000000 50176.000000 9.000000 
781944.227005 9240030.773010 789.145996 55552.000000 56320.000000 57344.000000 9.000000 
781944.328003 9240030.874008 788.909973 48896.000000 50176.000000 52736.000000 9.000000 
781943.923996 9240030.268005 788.742004 36096.000000 38144.000000 37888.000000 9.000000 
781944.597000 9240031.244003 788.843018 51968.000000 50176.000000 54016.000000 9.000000 
781944.328003 9240030.806000 788.674988 48128.000000 48640.000000 48896.000000 9.000000 
781944.563004 9240031.176010 788.674988 50176.000000 50944.000000 51968.000000 9.000000 
781944.328003 9240032.119003 788.505981 58112.000000 59904.000000 59648.000000 9.000000 
781944.227005 9240030.773010 788.909973 47104.000000 48640.000000 48896.000000 9.000000 
781944.192993 9240030.671997 788.640991 48640.000000 49920.000000 51200.000000 9.000000 
781944.059006 9240030.570999 789.078003 56832.000000 58624.000000 59904.000000 9.000000 
781944.529999 9240031.108994 788.640991 46848.000000 44032.000000 47104.000000 9.000000 
781944.192993 9240030.671997 788.909973 45056.000000 47872.000000 48128.000000 9.000000 
781944.160004 9240030.705002 789.112000 52736.000000 53248.000000 52992.000000 9.000000 
781944.227005 9240030.738998 788.809021 48896.000000 48384.000000 48896.000000 9.000000 
781944.395004 9240030.906998 788.606995 47360.000000 47872.000000 48384.000000 9.000000 
781944.395004 9240030.974991 788.843018 44544.000000 44544.000000 45824.000000 9.000000 
781944.091995 9240030.502991 788.775024 38144.000000 38144.000000 41472.000000 9.000000 
781944.362000 9240032.119003 788.742004 59904.000000 61184.000000 61952.000000 9.000000 
781944.395004 9240030.941010 788.742004 45312.000000 46336.000000 46848.000000 9.000000 
781944.294006 9240032.119003 788.372009 59648.000000 59648.000000 59648.000000 9.000000 
781944.529999 9240031.209991 789.078003 52224.000000 52480.000000 54784.000000 9.000000 
781943.990997 9240030.435989 789.078003 47360.000000 49664.000000 50176.000000 9.000000 
781944.496002 9240031.074997 788.809021 48896.000000 49664.000000 51712.000000 9.000000 
781944.697998 9240031.478989 788.843018 31488.000000 34304.000000 36352.000000 9.000000 
781944.697998 9240032.556000 788.976990 60672.000000 61184.000000 61440.000000 9.000000 
781944.697998 9240032.589996 788.875977 59904.000000 60416.000000 62464.000000 9.000000 
781944.630997 9240032.455002 789.078003 59648.000000 60160.000000 60928.000000 9.000000 
781944.529999 9240032.320999 789.112000 59904.000000 60672.000000 61440.000000 9.000000 
781944.462006 9240032.287003 788.640991 60672.000000 60672.000000 60672.000000 9.000000 
781944.429001 9240032.287003 788.405029 61440.000000 61440.000000 61440.000000 9.000000 
781944.731995 9240032.624008 789.112000 60928.000000 61184.000000 63488.000000 9.000000 
781944.563004 9240032.353989 788.674988 58368.000000 60160.000000 60672.000000 9.000000 
781944.731995 9240032.488998 789.078003 43264.000000 42240.000000 43264.000000 9.000000 
781944.597000 9240032.388000 788.875977 59648.000000 59648.000000 61440.000000 9.000000 
781944.664001 9240032.488998 788.775024 60928.000000 61184.000000 61440.000000 9.000000 
781944.563004 9240032.220001 788.909973 29696.000000 30976.000000 31488.000000 9.000000 
781944.798996 9240032.589996 789.010986 29184.000000 29440.000000 30720.000000 9.000000 
781944.630997 9240032.556000 789.112000 59392.000000 60672.000000 60928.000000 9.000000 
781944.697998 9240032.421997 788.943970 27136.000000 24832.000000 27136.000000 9.000000 
781944.630997 9240032.353989 789.044983 31232.000000 28928.000000 32256.000000 9.000000 
781944.529999 9240032.253998 789.010986 26112.000000 24832.000000 24320.000000 9.000000 
781943.822998 9240034.407990 786.049988 59392.000000 59392.000000 59648.000000 9.000000 
781943.755997 9240034.339996 787.362976 59136.000000 60416.000000 60672.000000 9.000000 
781943.789001 9240034.374008 785.848999 59648.000000 59648.000000 60160.000000 9.000000 
781943.789001 9240034.374008 786.823975 60416.000000 60416.000000 60672.000000 9.000000 
781943.822998 9240034.339996 787.127014 59648.000000 59392.000000 59648.000000 9.000000 
781943.755997 9240034.339996 786.387024 59392.000000 59648.000000 59904.000000 9.000000 
781943.688004 9240034.238998 787.093018 59136.000000 59904.000000 60416.000000 9.000000 
781943.654999 9240034.238998 786.218994 58880.000000 60160.000000 60928.000000 9.000000 
781943.654999 9240034.205994 786.387024 59392.000000 60160.000000 60672.000000 9.000000 
781943.654999 9240034.205994 786.892029 58880.000000 60160.000000 60928.000000 9.000000 
781943.688004 9240034.273010 786.117981 59904.000000 59904.000000 60672.000000 9.000000 
781943.688004 9240034.273010 786.757019 60160.000000 59904.000000 60928.000000 9.000000 
781943.789001 9240034.407990 786.151001 59392.000000 59392.000000 59648.000000 9.000000 
781943.688004 9240034.306992 787.497009 60160.000000 59648.000000 60672.000000 9.000000 
781943.722000 9240034.306992 785.578979 59136.000000 60160.000000 61184.000000 9.000000 
781943.654999 9240034.238998 786.622009 59904.000000 60160.000000 61184.000000 9.000000 
781943.621002 9240034.205994 787.463013 60672.000000 60160.000000 61184.000000 9.000000 
781943.621002 9240034.171997 787.294983 59648.000000 60416.000000 61696.000000 9.000000 
781943.755997 9240034.339996 786.554993 59136.000000 59648.000000 60672.000000 9.000000 
781943.654999 9240034.238998 785.916016 58880.000000 60160.000000 60928.000000 9.000000 
781943.621002 9240034.138000 786.387024 61184.000000 61440.000000 62208.000000 9.000000 
781943.654999 9240034.205994 787.161011 60672.000000 60160.000000 61184.000000 9.000000 
781943.822998 9240034.407990 787.395996 60416.000000 60928.000000 60672.000000 9.000000 
781943.822998 9240034.407990 786.690002 60928.000000 59392.000000 60416.000000 9.000000 
781944.059006 9240034.744003 789.044983 60160.000000 61184.000000 62720.000000 9.000000 
781944.798996 9240035.820999 788.976990 57344.000000 59136.000000 59648.000000 9.000000 
781944.664001 9240035.653000 789.078003 57088.000000 58368.000000 60160.000000 9.000000 
781944.664001 9240035.485001 789.010986 40448.000000 38400.000000 37888.000000 9.000000 
781943.856995 9240034.474991 789.044983 60416.000000 59904.000000 61184.000000 9.000000 
781944.529999 9240035.384003 789.044983 56064.000000 54784.000000 55296.000000 9.000000 
781944.563004 9240035.485001 789.078003 59136.000000 58880.000000 60416.000000 9.000000 
781944.462006 9240035.214996 788.976990 30720.000000 31744.000000 31744.000000 9.000000 
781944.462006 9240035.316010 789.078003 59136.000000 59136.000000 60672.000000 9.000000 
781944.764999 9240032.656998 788.742004 59392.000000 59648.000000 61184.000000 9.000000 
781944.227005 9240034.979996 789.044983 61696.000000 58624.000000 58624.000000 9.000000 
781944.731995 9240035.720001 789.044983 58880.000000 57600.000000 58368.000000 9.000000 
781943.957993 9240034.643005 788.943970 59392.000000 59136.000000 60672.000000 9.000000 
781943.957993 9240034.643005 789.078003 58624.000000 59648.000000 60160.000000 9.000000 
781944.597000 9240035.585999 789.044983 57344.000000 58624.000000 59392.000000 9.000000 
781944.360992 9240035.181992 789.078003 58880.000000 59392.000000 60160.000000 9.000000 
781944.227005 9240035.080994 789.078003 58112.000000 58368.000000 59136.000000 9.000000 
781944.160004 9240034.878998 789.078003 61440.000000 61696.000000 59648.000000 9.000000 
781944.563004 9240035.349991 788.943970 38656.000000 37632.000000 35840.000000 9.000000 
781944.764999 9240035.686996 788.943970 43520.000000 44032.000000 42240.000000 9.000000 
781944.764999 9240032.691010 788.875977 59648.000000 59904.000000 60928.000000 9.000000 
781944.798996 9240032.691010 789.078003 59136.000000 60928.000000 61440.000000 9.000000 
781943.889999 9240034.575989 788.976990 59392.000000 59648.000000 60160.000000 9.000000 
781945.572998 9240036.898010 787.193970 57600.000000 58368.000000 59392.000000 9.000000 
781945.539993 9240036.865005 786.487976 57856.000000 57600.000000 58624.000000 9.000000 
781945.539993 9240036.830994 785.982971 58880.000000 58112.000000 61184.000000 9.000000 
781945.472000 9240036.796997 786.387024 57600.000000 58112.000000 58368.000000 9.000000 
781945.404999 9240036.764008 786.791016 58112.000000 58368.000000 59392.000000 9.000000 
781945.438995 9240036.764008 787.294983 58880.000000 59136.000000 59392.000000 9.000000 
781945.572998 9240036.931992 787.026001 58368.000000 58624.000000 59392.000000 9.000000 
781945.539993 9240036.865005 787.294983 56832.000000 58880.000000 57344.000000 9.000000 
781945.539993 9240036.830994 786.117981 57600.000000 57856.000000 58880.000000 9.000000 
781945.472000 9240036.796997 786.554993 57856.000000 59136.000000 59648.000000 9.000000 
781945.505997 9240036.865005 787.127014 57600.000000 58624.000000 59392.000000 9.000000 
781945.606995 9240036.931992 786.387024 58368.000000 58624.000000 59392.000000 9.000000 
781945.371002 9240036.729996 786.690002 59392.000000 58624.000000 59392.000000 9.000000 
781944.832993 9240035.921997 789.112000 57856.000000 59136.000000 59392.000000 9.000000 
781944.934006 9240036.056992 789.044983 58624.000000 59136.000000 60160.000000 9.000000 
781944.934006 9240035.955994 788.976990 58624.000000 59136.000000 60672.000000 9.000000 
781944.832993 9240035.990005 789.010986 58112.000000 58880.000000 60160.000000 9.000000 
781945.102005 9240036.191010 789.112000 47616.000000 47872.000000 46848.000000 9.000000 
781944.832993 9240035.820999 789.078003 60160.000000 61440.000000 62208.000000 9.000000 
781945.001007 9240036.056992 789.145996 61952.000000 61440.000000 61952.000000 9.000000 
781945.606995 9240036.898010 789.010986 60928.000000 59904.000000 61184.000000 9.000000 
781945.404999 9240036.729996 789.078003 58112.000000 57856.000000 59392.000000 9.000000 
781945.304001 9240036.494003 789.179016 54784.000000 55296.000000 54272.000000 9.000000 
781945.438995 9240036.695999 788.976990 61440.000000 60416.000000 59904.000000 9.000000 
781945.371002 9240036.561996 789.078003 58880.000000 59648.000000 60928.000000 9.000000 
781945.203003 9240036.360001 789.145996 58624.000000 60160.000000 59904.000000 9.000000 
781945.169006 9240036.360001 789.044983 58368.000000 60672.000000 60416.000000 9.000000 
781945.539993 9240036.830994 789.078003 57856.000000 58368.000000 58368.000000 9.000000 
781943.621002 9240029.964996 789.314026 53760.000000 56064.000000 57344.000000 9.000000 
781943.990997 9240034.474991 788.843018 36096.000000 33792.000000 33792.000000 9.000000 
781943.990997 9240030.470001 789.280029 49920.000000 49408.000000 51712.000000 9.000000 
781944.865997 9240031.613998 789.145996 41472.000000 36608.000000 37120.000000 9.000000 
781944.395004 9240032.287003 789.112000 60928.000000 61184.000000 61440.000000 9.000000 
781944.024994 9240030.502991 789.179016 45056.000000 45056.000000 46336.000000 9.000000 
781943.923996 9240034.542007 788.875977 60416.000000 59904.000000 59136.000000 9.000000 
781944.865997 9240035.955994 788.843018 57344.000000 58624.000000 59904.000000 9.000000 
781944.731995 9240035.753998 788.909973 58880.000000 59136.000000 60928.000000 9.000000 
781944.798996 9240031.445999 790.088013 26880.000000 18176.000000 18432.000000 9.000000 
781945.102005 9240031.714996 790.221985 31488.000000 31232.000000 30208.000000 9.000000 
781945.001007 9240031.580002 790.120972 51968.000000 45056.000000 43776.000000 9.000000 
781944.832993 9240031.377991 790.255981 32256.000000 28416.000000 27648.000000 9.000000 
781944.966995 9240031.412003 790.322998 32768.000000 31744.000000 29184.000000 9.000000 
781945.067993 9240031.714996 790.088013 39936.000000 38144.000000 35584.000000 9.000000 
781943.688004 9240029.964996 789.414978 50432.000000 48640.000000 49664.000000 9.000000 
781943.789001 9240029.897003 789.414978 49152.000000 47872.000000 48128.000000 9.000000 
781943.654999 9240029.796005 789.414978 49664.000000 49664.000000 49920.000000 9.000000 
781943.722000 9240030.066010 789.414978 44288.000000 43776.000000 45568.000000 9.000000 
781943.856995 9240030.066010 789.414978 47360.000000 47104.000000 47360.000000 9.000000 
781943.789001 9240030.167007 789.414978 43776.000000 44032.000000 46848.000000 9.000000 
781945.067993 9240031.648010 789.549011 61696.000000 61184.000000 62976.000000 9.000000 
781946.078003 9240037.335999 786.117981 22528.000000 21760.000000 19968.000000 9.000000 
781945.910004 9240037.167999 786.958984 25344.000000 22784.000000 20736.000000 9.000000 
781946.279999 9240037.471008 786.521973 45824.000000 44544.000000 44288.000000 9.000000 
781946.112000 9240037.335999 786.320007 23808.000000 21504.000000 20992.000000 9.000000 
781946.145004 9240037.335999 786.421021 25856.000000 24832.000000 22528.000000 9.000000 
781945.942993 9240037.167999 787.161011 36352.000000 36096.000000 32768.000000 9.000000 
781946.279999 9240037.471008 786.252014 45568.000000 46080.000000 45824.000000 9.000000 
781946.246002 9240037.436996 786.151001 37632.000000 36864.000000 33792.000000 9.000000 
781946.044006 9240037.268997 787.093018 32768.000000 31232.000000 27904.000000 9.000000 
781945.977005 9240037.167999 787.262024 50944.000000 52992.000000 48128.000000 9.000000 
781945.910004 9240037.134003 787.362976 58880.000000 59648.000000 60160.000000 9.000000 
781946.212997 9240037.436996 786.421021 27136.000000 24832.000000 24320.000000 9.000000 
781946.313995 9240037.503998 786.387024 48640.000000 47360.000000 45312.000000 9.000000 
781946.279999 9240037.436996 786.690002 30976.000000 30208.000000 29440.000000 9.000000 
781946.212997 9240037.370010 786.992004 26624.000000 24320.000000 21248.000000 9.000000 
781946.145004 9240037.302002 787.161011 24576.000000 20480.000000 18176.000000 9.000000 
781946.078003 9240037.235001 787.362976 28416.000000 24320.000000 23296.000000 9.000000 
781945.977005 9240037.167999 787.463013 30720.000000 30976.000000 28416.000000 9.000000 
781946.112000 9240037.268997 787.262024 25600.000000 23296.000000 20480.000000 9.000000 
781946.279999 9240037.470001 786.791016 50176.000000 49408.000000 48128.000000 9.000000 
781946.279999 9240037.436996 787.093018 44032.000000 44544.000000 42240.000000 9.000000 
781946.212997 9240037.370010 787.193970 26624.000000 24320.000000 21248.000000 9.000000 
781946.246002 9240037.436996 787.262024 34304.000000 30976.000000 31488.000000 9.000000 
781946.179001 9240037.335999 787.362976 26880.000000 24832.000000 20992.000000 9.000000 
781946.112000 9240037.302002 787.463013 25600.000000 23296.000000 20480.000000 9.000000 
781946.279999 9240037.503998 787.193970 46080.000000 44800.000000 41728.000000 9.000000 
781946.279999 9240037.503998 787.395996 45312.000000 44800.000000 44032.000000 9.000000 
781946.179001 9240037.335999 787.632019 26624.000000 25088.000000 22016.000000 9.000000 
781946.078003 9240037.268997 787.531006 23808.000000 20992.000000 18944.000000 9.000000 
781946.179001 9240037.403000 787.732971 30720.000000 27136.000000 24576.000000 9.000000 
781945.876007 9240037.200989 786.353027 31488.000000 28160.000000 22784.000000 9.000000 
781946.212997 9240037.370010 786.892029 27904.000000 25600.000000 21504.000000 9.000000 
781946.313995 9240037.503998 786.588989 48640.000000 47360.000000 45312.000000 9.000000 
781945.876007 9240037.167999 787.059998 47616.000000 46592.000000 46336.000000 9.000000 
781945.740997 9240037.099991 786.554993 59392.000000 59904.000000 59904.000000 9.000000 
781945.641006 9240036.966003 787.497009 57600.000000 58624.000000 59904.000000 9.000000 
781945.707993 9240037.032990 786.017029 58368.000000 59392.000000 60672.000000 9.000000 
781945.673996 9240037.067001 787.059998 58112.000000 59392.000000 60160.000000 9.000000 
781945.673996 9240037.032990 786.286011 58112.000000 59136.000000 60160.000000 9.000000 
781945.841995 9240037.200989 786.622009 32256.000000 28672.000000 27648.000000 9.000000 
781945.809006 9240037.099991 787.294983 58624.000000 59904.000000 60160.000000 9.000000 
781945.707993 9240037.032990 787.395996 58624.000000 59136.000000 60160.000000 9.000000 
781945.707993 9240037.032990 786.723022 58624.000000 59392.000000 60416.000000 9.000000 
781945.740997 9240037.067001 786.387024 58624.000000 58880.000000 58880.000000 9.000000 
781945.774994 9240037.099991 786.017029 58624.000000 58624.000000 58624.000000 9.000000 
781945.876007 9240037.200989 786.520996 28672.000000 24576.000000 22272.000000 9.000000 
781945.641006 9240036.966003 786.791016 56832.000000 58112.000000 58880.000000 9.000000 
781945.774994 9240037.134003 786.184998 48128.000000 48128.000000 47616.000000 9.000000 
781945.809006 9240037.167999 786.286011 36352.000000 35584.000000 34048.000000 9.000000 
781945.809006 9240037.167999 786.453979 36352.000000 35584.000000 34048.000000 9.000000 
781945.673996 9240036.966003 789.078003 57856.000000 58368.000000 59648.000000 9.000000 
781928.138000 9240013.404999 784.367981 24320.000000 21248.000000 23040.000000 9.000000 
781928.339996 9240027.170998 788.270996 43008.000000 43264.000000 41984.000000 9.000000 
781928.272995 9240027.237999 788.068970 18688.000000 17408.000000 21248.000000 9.000000 
781943.554001 9240029.627991 789.414978 54528.000000 54272.000000 52992.000000 9.000000 
781942.610992 9240028.449997 789.414978 50176.000000 51968.000000 51456.000000 9.000000 
781943.283997 9240029.324997 789.447998 35072.000000 34560.000000 32768.000000 9.000000 
781942.813004 9240028.719009 789.515991 19968.000000 20480.000000 20224.000000 9.000000 
781943.587006 9240029.863998 789.414978 47872.000000 48640.000000 49920.000000 9.000000 
781942.712006 9240028.685989 789.414978 35584.000000 36864.000000 30720.000000 9.000000 
781943.182999 9240029.257996 789.414978 44288.000000 43008.000000 42496.000000 9.000000 
781943.082001 9240029.056000 789.414978 17408.000000 18688.000000 19456.000000 9.000000 
781943.419006 9240029.595001 789.414978 35840.000000 36352.000000 34816.000000 9.000000 
781943.352005 9240029.459991 789.414978 39424.000000 40192.000000 39936.000000 9.000000 
781943.014999 9240028.988998 789.414978 19456.000000 17664.000000 20224.000000 9.000000 
781954.425003 9240042.585999 789.010986 6400.000000 9472.000000 10240.000000 9.000000 
781954.459000 9240042.653992 789.314026 10752.000000 11008.000000 12800.000000 9.000000 
781954.291000 9240042.451996 789.078003 24832.000000 23040.000000 21760.000000 9.000000 
781954.492996 9240042.653992 789.213013 40704.000000 41984.000000 44544.000000 9.000000 
781954.492996 9240042.653992 788.776001 40192.000000 41728.000000 44800.000000 9.000000 
781954.526001 9240042.585999 788.539978 60928.000000 61440.000000 60928.000000 9.000000 
781954.358002 9240042.384995 788.539978 60416.000000 60416.000000 61440.000000 9.000000 
